# .PCD v0.7 - Point Cloud Data file format
VERSION 0.7
FIELDS x y z rgb
SIZE 4 4 4 4
TYPE F F F F
COUNT 1 1 1 1
WIDTH 1366
HEIGHT 1
VIEWPOINT 0 0 0 1 0 0 0
POINTS 1366
DATA ascii
2.423756 1.866942 0.872633 3833796
2.436123 1.943706 0.786509 3440586
2.426358 2.004510 0.792997 3702726
2.421546 2.010132 0.810067 2654166
2.415884 2.099427 0.785617 3440586
2.415063 2.057416 0.833385 3112911
2.414508 2.105212 0.781810 3440586
2.432929 2.139810 0.835873 3506121
2.426113 2.156613 0.784863 2850771
2.433549 2.194145 0.835803 3637191
2.400680 2.219734 0.798036 3178446
2.425819 2.243807 0.823258 3702726
2.404724 2.209429 0.856232 4095936
2.448598 2.285575 0.837866 4358076
2.421745 2.308774 0.836019 3571656
2.400321 2.383919 0.825264 3440586
2.431715 2.441915 0.804760 3243981
2.440702 2.427873 0.861989 3768261
2.429033 2.491034 0.791441 3637191
2.409275 2.476470 0.810101 2981841
2.401033 2.462209 0.854655 3702726
2.421480 2.538956 0.805221 4161471
2.401464 2.563853 0.811676 3309516
2.422183 2.579420 0.891570 4292541
2.423269 2.646173 0.813713 3637191
2.422526 2.633807 0.862123 4554681
2.441129 2.630590 0.947665 4751286
2.439815 2.636148 0.993469 4882356
2.438243 2.636402 1.015904 4685751
2.423600 2.640962 1.109602 5210031
2.434848 2.694729 0.799817 3637191
2.417227 2.675980 0.849810 3899331
2.423176 2.684453 0.869613 3637191
2.424368 2.665817 0.999217 4947891
2.408083 2.657611 1.002506 4620216
2.424801 2.659173 1.087982 4685751
2.439216 2.656961 1.122811 5275566
2.428639 2.685545 1.198270 5734311
2.428470 2.730416 0.787396 3899331
2.433160 2.705473 0.820558 4292541
2.411696 2.715216 1.035662 4161471
2.441870 2.747782 1.089573 5275566
2.419769 2.724890 1.120408 5275566
2.421113 2.710699 1.171938 5603241
2.428107 2.749108 1.246591 7110546
2.427449 2.741687 1.253000 6389661
2.447382 2.793921 0.829067 3506121
2.435866 2.783253 1.017538 4882356
2.415928 2.763118 1.241221 6520731
2.419384 2.794900 1.252758 6193056
2.405113 2.767928 1.302333 6389661
2.406484 2.797746 1.356614 7110546
2.400958 2.823802 0.795844 3768261
2.447540 2.844863 0.815475 3375051
2.447973 2.811555 0.949354 4816821
2.434805 2.806121 0.952977 3637191
2.441510 2.815957 1.029279 5668776
2.406265 2.831619 1.072211 4620216
2.414409 2.836789 1.130323 4947891
2.426230 2.844134 1.176285 6061986
2.418171 2.823530 1.244591 6193056
2.406708 2.841732 1.291973 6258591
2.410356 2.892793 0.793498 2785236
2.432732 2.850233 0.829214 4358076
2.412708 2.877165 0.929037 4030401
2.437829 2.894069 0.972273 4685751
2.402948 2.864044 1.038332 4751286
2.433721 2.899224 1.070385 4947891
2.407010 2.864212 1.127840 6324126
2.437417 2.857142 1.163525 5865381
2.405504 2.871876 1.228586 6324126
2.442880 2.900452 0.794923 2392026
2.410097 2.934016 0.864233 3964866
2.434470 2.939038 0.933915 4227006
2.446186 2.949066 0.953073 4423611
2.417765 2.916698 1.012932 4620216
2.401013 2.901813 1.065573 5603241
2.409215 2.905259 1.110305 5603241
2.421953 2.904751 1.177112 4947891
2.409713 2.911942 1.242348 6324126
2.430254 2.946321 1.325910 6913941
2.449993 2.959151 0.792728 2523096
2.423652 2.957239 0.814093 3702726
2.404462 2.982549 0.899640 3964866
2.442730 2.962999 0.943732 4423611
2.401853 2.977267 1.030513 5472171
2.431093 2.959312 1.063491 5341101
2.406996 2.962688 1.115219 5996451
2.445838 2.965190 1.268459 6848406
2.407799 3.012452 0.782468 3833796
2.445337 3.034175 0.842857 3571656
2.449135 3.020269 0.850302 4227006
2.439152 3.000392 0.994518 4751286
2.447038 3.042511 1.089662 5668776
2.439994 3.046502 1.168255 4816821
2.411794 3.020148 1.247212 6258591
2.417026 3.029109 1.254091 6258591
2.447931 3.076115 0.804175 3506121
2.428863 3.086752 0.867627 4423611
2.433741 3.093111 0.964234 4620216
2.435242 3.085808 1.105556 5603241
2.406301 3.066797 1.169947 5865381
2.400018 3.056554 1.226019 6455196
2.406825 3.069604 1.289765 6520731
2.401368 3.077883 1.306445 6520731
2.406123 3.088978 1.354627 7110546
2.430651 3.102464 0.791106 2392026
2.444163 3.101052 0.910660 4358076
2.410063 3.125240 0.957126 4947891
2.430278 3.104924 1.035039 5013426
2.423260 3.119696 1.082109 5275566
2.428996 3.110406 1.128366 5603241
2.405502 3.144664 1.184624 5799846
2.400249 3.126199 1.241839 6193056
2.415592 3.116648 1.329686 6586266
2.404882 3.157180 0.766210 2392026
2.410503 3.185035 0.846525 3768261
2.435369 3.177275 0.899276 3178446
2.438676 3.177932 0.909644 4095936
2.412928 3.195951 0.973470 4620216
2.419232 3.156901 1.025140 5013426
2.423615 3.158578 1.089380 5210031
2.403343 3.173632 1.183287 5930916
2.419470 3.173768 1.207405 6258591
2.404829 3.182561 1.255252 6520731
2.411790 3.223331 0.828698 3506121
2.422197 3.227925 0.936677 4161471
2.406752 3.230630 0.979990 4620216
2.409340 3.220979 1.048175 5078961
2.437947 3.206769 1.056876 5144496
2.429101 3.214364 1.101845 5799846
2.409304 3.284876 0.782830 2719701
2.413798 3.296856 0.823714 3309516
2.428821 3.252565 0.922657 4161471
2.438683 3.286641 0.952028 3833796
2.447029 3.296258 1.348169 6586266
2.400829 3.333942 0.929150 3637191
2.416396 3.336502 0.978372 5341101
2.447887 3.339607 1.039654 5341101
2.417071 3.325325 1.145084 5930916
2.400760 3.353190 0.769544 2457561
2.424916 3.351171 0.938097 3768261
2.411682 3.383825 0.972575 4489146
2.403907 3.363550 1.043550 4816821
2.406536 3.392374 1.070382 4751286
2.400077 3.350669 1.111100 4816821
2.403429 3.383649 1.159463 5930916
2.400113 3.350706 1.318315 6389661
2.400561 3.411386 0.823576 3506121
2.421363 3.407944 0.968281 4554681
2.403161 3.438571 1.025699 4685751
2.405899 3.417497 1.080835 5013426
2.430397 3.417759 1.140680 5341101
2.413201 3.440562 1.171365 6127521
2.448190 3.498447 0.793145 2392026
2.448065 3.497576 0.980323 4685751
2.444447 3.503341 0.862724 4554681
2.425271 3.514433 0.986869 3768261
2.431288 3.521354 1.037153 4947891
2.415893 3.538283 1.179555 6127521
2.407168 3.544462 1.234182 6586266
2.409689 3.542208 1.259710 6193056
2.438492 3.587219 0.963724 4947891
2.441227 3.569095 1.031790 5144496
2.408354 3.595408 1.065309 5144496
2.401630 3.591503 1.107586 5668776
2.447901 3.592787 1.166414 5275566
2.428389 3.597998 1.210033 5734311
2.421162 3.635247 0.944497 4882356
2.420092 3.607117 0.974001 4685751
2.413833 3.626133 1.071926 5406636
2.400907 3.602640 1.136339 6127521
2.440638 3.608041 1.179725 6324126
2.407553 3.641710 1.213695 5799846
2.410829 3.670601 1.109580 5537706
2.410624 3.698361 1.198808 5799846
2.447616 3.698208 1.204916 5996451
2.446162 3.668012 1.260578 5668776
2.448622 3.691767 1.333204 6193056
2.419017 3.736096 0.774931 2457561
2.400948 3.700213 1.029408 5472171
2.416525 3.717892 1.191070 6193056
2.404205 3.713268 1.249002 5799846
2.405287 3.735038 1.279822 5996451
2.408940 3.714566 1.342532 6389661
2.435179 3.745057 1.398091 7503756
2.426466 3.762114 1.298314 7045011
2.418933 3.779333 1.365059 6979476
2.417035 3.812149 0.909475 3571656
2.408102 3.804552 1.211261 6389661
2.401475 3.827049 1.250338 6782871
2.435427 3.811619 1.315670 6586266
2.441896 3.823263 1.359169 6913941
2.437923 3.878525 1.190927 5668776
2.434484 3.885429 1.205607 5734311
2.416505 3.929347 1.227538 5865381
2.422424 3.908496 1.349037 6389661
2.425386 3.999590 1.394427 7110546
2.426109 4.013716 1.215175 5472171
2.429781 4.087570 1.324480 6520731
2.445693 4.111116 1.307075 5930916
2.420544 4.843594 0.767710 3440586
2.441302 4.840049 0.827718 2785236
2.442566 4.800067 1.202717 5341101
2.403525 4.826507 1.294751 6848406
2.444873 4.830830 1.396665 7110546
2.415819 4.891072 0.807145 2588631
2.428529 4.853359 0.908562 4358076
2.438583 4.887429 0.995668 5078961
2.434622 4.894010 1.032352 4685751
2.435839 4.891246 1.057688 4882356
2.439666 4.888467 1.309021 6848406
2.416162 4.889225 1.371894 7176081
2.406478 4.906707 0.833769 4030401
2.448137 4.915310 0.850957 3440586
2.436565 4.940145 0.944856 3047376
2.417727 4.948191 0.962940 4489146
2.426961 4.900640 1.043487 5210031
2.433291 4.904219 1.091453 5078961
2.425689 4.937649 1.154256 5865381
2.406092 4.925647 1.278923 6651801
2.412063 4.945968 1.414565 6193056
2.411041 4.963956 0.955293 4489146
2.449717 4.961217 1.076282 4947891
2.429942 4.994713 1.104633 5078961
2.402516 4.985560 1.217428 6061986
2.434397 5.004132 0.835644 3833796
2.411087 5.048810 0.960494 4554681
2.407165 5.020993 1.075490 5537706
2.402401 5.016463 1.282319 6455196
2.420599 5.090765 0.776323 3506121
2.418897 5.099176 0.867155 4292541
2.431162 5.093957 0.949014 4489146
2.440551 5.091221 0.990402 5275566
2.433097 5.095639 1.079037 4292541
2.417920 5.097867 1.242828 6258591
2.407785 5.098861 1.255409 6324126
2.440316 5.144312 0.809027 4227006
2.425404 5.134480 0.862848 2850771
2.405349 5.109493 0.930030 4685751
2.416875 5.114321 0.961306 5078961
2.411149 5.112219 1.037995 5144496
2.419815 5.111296 1.055826 5078961
2.423039 5.142803 1.146571 5603241
2.449582 5.108058 1.174135 5799846
2.409692 5.119418 1.238827 6127521
2.409010 5.123923 1.295186 6455196
2.430417 5.152581 0.842492 3899331
2.419752 5.150530 0.873734 4095936
2.411594 5.167125 0.931348 4947891
2.424059 5.183829 0.987491 5275566
2.403769 5.177660 1.015709 5406636
2.404031 5.178142 1.094106 5210031
2.406691 5.167861 1.108217 5537706
2.422992 5.273586 0.806667 3440586
2.415742 5.253737 1.346501 7110546
2.421907 5.336122 1.130133 5275566
2.439986 5.362171 1.112853 5210031
2.490184 0.709974 1.335426 6651801
2.492346 0.715125 1.467186 7765896
2.459762 0.893546 1.396715 7241616
2.499897 0.853328 1.402718 7045011
2.460688 0.857041 1.476277 7634826
2.456884 0.899118 1.514770 7765896
2.470805 0.938859 1.361973 6979476
2.480187 0.918103 1.490635 7634826
2.459160 0.901852 1.509688 7634826
2.476241 0.954096 1.493114 7765896
2.480821 0.974887 1.540304 7962501
2.489889 1.035347 1.429535 6782871
2.468165 1.029405 1.484023 7176081
2.480300 1.004079 1.535410 8224641
2.489792 1.060805 1.436171 6979476
2.457193 1.078405 1.473030 7372686
2.471434 1.106568 1.449744 7045011
2.460555 1.104429 1.471494 7176081
2.489778 1.287374 1.464348 7700361
2.461471 1.369227 1.447081 7438221
2.466172 1.377900 1.450649 7241616
2.456802 1.445453 0.798113 3768261
2.472698 1.434137 0.862932 4489146
2.450916 1.402830 1.443148 7634826
2.455402 1.420277 1.452020 7438221
2.472618 1.485322 0.843051 4161471
2.496912 1.491038 0.913114 2850771
2.459972 1.458759 1.039680 5144496
2.451140 1.504118 0.796832 3571656
2.490335 1.549280 0.811344 4030401
2.466993 1.518697 1.063402 5472171
2.471264 1.539121 1.108261 6193056
2.474712 1.533591 1.165299 5537706
2.494037 1.508477 1.415805 6651801
2.474760 1.596204 0.817593 4227006
2.495157 1.569399 0.855477 4292541
2.476075 1.573332 0.911170 4095936
2.476002 1.561221 1.031861 5144496
2.460698 1.588696 1.139275 5341101
2.481914 1.560770 1.161560 5930916
2.496217 1.571819 1.282964 6651801
2.463423 1.567380 1.310181 6520731
2.492281 1.613323 0.803615 2981841
2.452104 1.635423 0.860128 4030401
2.481584 1.646243 0.941242 4751286
2.463935 1.612549 1.080097 5013426
2.464760 1.643445 1.123194 5013426
2.490142 1.648544 1.181028 6455196
2.467530 1.644003 1.378401 7176081
2.456236 1.662905 0.788328 3637191
2.461702 1.695076 0.811887 2654166
2.458950 1.652106 1.096546 4620216
2.476852 1.682173 1.178663 5472171
2.487199 1.666650 1.216983 5537706
2.483824 1.698824 1.360024 6782871
2.474097 1.678333 1.406029 7045011
2.452575 1.672239 1.469587 7307151
2.495806 1.748963 0.798755 3702726
2.481387 1.737272 0.807487 3768261
2.488334 1.720260 0.858629 4358076
2.479680 1.714758 1.089612 4554681
2.451504 1.724625 1.213767 6520731
2.485149 1.748380 1.256536 6324126
2.480514 1.748479 1.319179 5799846
2.487250 1.715479 1.358572 6913941
2.467222 1.792483 0.839715 4161471
2.472193 1.772436 1.026551 5275566
2.496882 1.779663 1.060750 5144496
2.471146 1.753252 1.224917 5603241
2.467999 1.786902 1.261433 6782871
2.488431 1.750961 1.325434 6455196
2.460830 1.795010 1.354806 6913941
2.460973 1.841892 0.797097 3375051
2.480888 1.802129 0.843137 4227006
2.494220 1.835139 0.857155 3243981
2.489597 1.827580 1.206621 5734311
2.475230 1.802478 1.271544 5537706
2.466833 1.866439 0.796680 3178446
2.489556 1.879248 0.803473 3571656
2.457345 1.890772 1.398105 6848406
2.475355 1.930405 0.798468 2916306
2.498601 1.944741 0.828134 3506121
2.498818 1.980686 0.853310 3702726
2.487535 1.970928 1.359783 6651801
2.474676 2.008803 0.793152 3637191
2.468991 2.019283 0.820089 3309516
2.481558 2.001734 0.879305 4227006
2.453867 2.093818 0.802037 2654166
2.479900 2.097518 0.854935 3702726
2.481799 2.112287 0.811413 4030401
2.463564 2.146031 0.852515 4489146
2.491591 2.144622 1.095200 4554681
2.482372 2.101735 1.222811 5865381
2.457293 2.170960 0.816711 3440586
2.493627 2.173749 1.138902 5013426
2.481082 2.241437 0.796524 3506121
2.495354 2.247731 0.833088 3702726
2.498980 2.260218 0.830066 3702726
2.466155 2.260450 0.854797 3571656
2.477279 2.345074 0.804422 2654166
2.462058 2.366462 0.798803 3178446
2.481617 2.378718 0.807293 2588631
2.481755 2.366333 0.854018 4489146
2.490116 2.413730 0.827196 4161471
2.492360 2.417570 0.856396 3702726
2.498901 2.413686 0.930601 4489146
2.458137 2.487613 0.798190 3637191
2.491283 2.471185 0.847948 3833796
2.455558 2.455365 0.853266 4489146
2.486518 2.541603 0.892422 4489146
2.459676 2.529037 0.980161 4816821
2.482813 2.577247 0.800536 3506121
2.491962 2.555032 0.965511 5013426
2.481518 2.640670 0.845375 4292541
2.493932 2.647242 0.851732 4095936
2.478947 2.638710 0.903208 4751286
2.454259 2.632960 0.968536 3768261
2.467063 2.645850 1.068454 4751286
2.482539 2.675416 0.843703 3506121
2.470675 2.662881 0.863056 4292541
2.453916 2.695896 1.019947 4882356
2.468473 2.687257 1.151529 5865381
2.479238 2.688639 1.243208 6455196
2.472180 2.687614 1.252543 6520731
2.491453 2.736858 0.816028 3571656
2.489106 2.717189 0.944506 4882356
2.493051 2.717635 1.014842 5013426
2.493090 2.739301 1.050997 4882356
2.495008 2.722423 1.115735 5603241
2.476982 2.720431 1.194501 5734311
2.472474 2.733083 1.266940 6651801
2.460809 2.763248 0.786765 3440586
2.475398 2.787011 0.813625 2654166
2.473577 2.793151 0.893050 3178446
2.484546 2.753666 0.914711 3571656
2.465980 2.790075 0.979432 4030401
2.496061 2.758808 1.023336 4882356
2.479959 2.791674 1.082144 5603241
2.463133 2.781489 1.104437 4161471
2.465223 2.789485 1.173667 5537706
2.485865 2.751897 1.219830 6193056
2.465519 2.832122 0.839210 3571656
2.494748 2.811354 0.851363 3178446
2.451194 2.828654 0.910115 3637191
2.464060 2.807975 0.988155 4751286
2.495537 2.838566 1.019561 4882356
2.452252 2.820103 1.054581 4685751
2.453119 2.856650 0.835070 3506121
2.481120 2.876297 0.863266 3899331
2.487777 2.880524 0.938837 4423611
2.469874 2.890839 0.975641 4947891
2.483470 2.881722 1.019960 5210031
2.452232 2.881655 1.099303 5930916
2.461278 2.851694 1.141549 5930916
2.468746 2.851248 1.168112 5537706
2.476317 2.868456 1.263426 6586266
2.471788 2.938142 0.795538 3506121
2.468104 2.925881 0.800837 3440586
2.460626 2.936805 0.935147 4095936
2.453907 2.929590 1.037846 5275566
2.454426 2.944794 1.075970 5734311
2.466372 2.950250 0.788807 3440586
2.480854 2.981665 0.815370 2719701
2.487981 2.984414 0.854985 3243981
2.499693 2.957170 1.034980 5144496
2.487475 2.973550 1.079991 5275566
2.496051 2.988290 1.105426 5341101
2.455799 2.979219 1.206728 5734311
2.474455 2.951016 1.291900 7045011
2.463659 3.036179 0.827182 4227006
2.491073 3.022356 0.855650 4554681
2.481025 3.032874 0.902027 3833796
2.489550 3.027380 0.958809 4751286
2.496444 3.030750 1.010664 5210031
2.493043 3.014437 1.079900 4292541
2.485718 3.032168 1.126613 5472171
2.460746 3.033451 1.196284 5865381
2.450243 3.003205 1.229448 6061986
2.493992 3.018883 1.298674 6782871
2.452597 3.073571 0.848557 3833796
2.487881 3.097415 0.863970 2850771
2.499335 3.068713 0.920591 4292541
2.464690 3.090992 0.962990 4685751
2.454180 3.079207 1.020322 5144496
2.470820 3.054995 1.052970 5668776
2.462866 3.063839 1.119244 5472171
2.490535 3.130126 0.824507 3899331
2.495338 3.114416 0.854215 3571656
2.487079 3.110308 0.944874 3768261
2.457465 3.117394 0.979167 4620216
2.493725 3.115603 1.001908 5078961
2.474623 3.125781 1.177548 5865381
2.463111 3.169617 0.863493 3702726
2.465850 3.167258 0.910563 3440586
2.471782 3.199179 0.966800 4620216
2.466676 3.158799 1.004190 4685751
2.458150 3.208747 0.795247 3899331
2.458530 3.239611 0.828611 4358076
2.494833 3.236450 0.880219 4489146
2.489446 3.248820 0.968431 4882356
2.453971 3.283606 0.786338 3112911
2.499132 3.281131 0.811017 2719701
2.482839 3.302047 0.801944 2588631
2.459998 3.320764 0.888870 3506121
2.465815 3.306489 0.914400 3702726
2.472139 3.316184 0.961032 4685751
2.481017 3.321963 1.235324 5930916
2.478577 3.399555 0.785798 3440586
2.494008 3.372288 0.821025 2981841
2.474419 3.378286 0.857862 3637191
2.483443 3.369572 0.943323 4161471
2.463414 3.364017 0.963483 4554681
2.478106 3.392527 1.032860 4751286
2.451276 3.419095 0.806694 3506121
2.477369 3.425613 0.862019 4358076
2.465193 3.443806 0.943252 3506121
2.473196 3.445869 1.000990 4816821
2.471284 3.444355 1.050173 4882356
2.470291 3.437992 1.195804 6061986
2.460073 3.473565 0.847554 3833796
2.495827 3.481902 0.861127 4554681
2.468823 3.482461 0.927808 4620216
2.491679 3.492130 1.069932 5537706
2.499102 3.506127 0.821215 3833796
2.492374 3.536485 0.940901 4685751
2.488214 3.500168 0.990485 4685751
2.495271 3.548582 1.045716 4489146
2.481753 3.545235 1.192475 5210031
2.494612 3.525669 1.230644 5603241
2.475028 3.515513 1.254198 6913941
2.492287 3.560541 0.931556 4620216
2.469629 3.585320 0.997782 4751286
2.482234 3.590831 1.032228 4882356
2.497663 3.552130 1.100164 4489146
2.462808 3.583738 1.168842 5275566
2.481924 3.554215 1.213206 5341101
2.467118 3.633020 0.955054 4554681
2.454052 3.606795 1.025124 5472171
2.488441 3.616996 1.097019 5603241
2.468121 3.649041 1.129911 5275566
2.474759 3.613604 1.169153 6127521
2.450953 3.604425 1.214510 5537706
2.465254 3.618131 1.268813 6717336
2.489264 3.628447 1.333606 6258591
2.495022 3.609611 1.387433 6979476
2.452850 3.655122 0.972620 5013426
2.470446 3.684249 1.001737 5013426
2.470660 3.690121 1.230281 5275566
2.452271 3.672596 1.256453 5996451
2.471079 3.661595 1.335400 6127521
2.467502 3.748723 1.046496 5603241
2.462206 3.711518 1.107535 5930916
2.494520 3.749904 1.256018 6324126
2.458408 3.739861 1.361333 7241616
2.496786 3.783617 1.011752 4620216
2.461156 3.780549 1.252651 6848406
2.494510 3.794807 1.360544 7045011
2.486504 3.847731 1.238384 6520731
2.458968 3.842812 1.253605 6127521
2.489211 3.802614 1.323748 6782871
2.452376 3.879560 1.016806 4620216
2.478747 3.954117 1.121548 5275566
2.465644 3.991929 1.187733 5668776
2.468196 3.964386 1.200689 5275566
2.455628 3.998806 1.344916 7110546
2.491137 3.971463 1.381210 7045011
2.470846 4.000836 1.346438 7110546
2.466343 4.052840 1.213237 5865381
2.465791 4.142451 1.343541 6258591
2.469715 4.683618 0.819752 4227006
2.468909 4.736944 1.339434 5996451
2.462429 4.848373 0.795571 3964866
2.481003 4.842405 0.894700 4489146
2.462464 4.847113 1.156250 6127521
2.466217 4.846597 1.219705 5799846
2.495552 4.832819 1.272376 6717336
2.466560 4.824462 1.311477 6127521
2.456657 4.892810 0.997058 5078961
2.473015 4.860838 1.197193 6455196
2.475249 4.883702 1.257234 5996451
2.482008 4.903846 0.861057 3768261
2.476533 4.919730 0.943058 3768261
2.469475 4.935656 0.989400 4554681
2.453196 4.932479 1.014677 4685751
2.494631 4.919391 1.237660 6717336
2.467275 4.932026 1.397135 7241616
2.485366 4.974870 0.845068 2392026
2.458464 4.951876 0.962602 4489146
2.456174 4.965855 1.034962 4685751
2.491067 4.983974 1.212444 6193056
2.480163 4.954474 1.289343 6193056
2.458603 4.950333 1.376494 7634826
2.465948 4.970929 1.406716 7569291
2.470839 5.047229 0.800082 3571656
2.494036 5.048654 1.007306 4489146
2.496128 5.041221 1.214786 5930916
2.481888 5.031277 1.479080 8093571
2.477031 5.097449 0.973717 4554681
2.487045 5.109507 0.801023 3637191
2.496588 5.147893 0.875752 4292541
2.472267 5.102980 0.971861 5210031
2.456983 5.106731 1.033435 5078961
2.479231 5.133148 1.146368 5734311
2.459605 5.133501 1.203102 5865381
2.458703 5.159893 0.845152 4227006
2.466450 5.169642 0.891615 4227006
2.499194 5.187700 0.990583 5013426
2.492512 5.175902 1.000135 5078961
2.487109 5.164592 1.053329 5144496
2.458130 5.152663 1.102450 5341101
2.476326 5.182867 1.360922 7241616
2.450177 5.235224 0.879104 4489146
2.468009 5.205140 0.936761 4489146
2.459827 5.226517 1.392807 7110546
2.455266 5.230013 1.415194 7700361
2.478216 5.250276 1.225343 5406636
2.479569 5.263606 1.405461 7634826
2.532475 0.716929 1.482415 8028036
2.528263 0.880894 1.436842 7241616
2.500747 0.890280 1.466417 7438221
2.517154 0.916448 1.374625 6193056
2.537414 0.940432 1.411111 6455196
2.504532 0.947277 1.464909 7765896
2.516989 0.957300 1.281061 6913941
2.529917 0.960427 1.315770 5799846
2.547371 0.997278 1.435421 7634826
2.518688 0.997076 1.475009 7896966
2.517970 0.990794 1.507439 8224641
2.548079 1.049725 1.400964 6717336
2.520468 1.036093 1.485986 7896966
2.516403 1.001937 1.500102 7700361
2.522335 1.055577 1.397496 7241616
2.523992 1.065825 1.400814 6717336
2.502007 1.068611 1.479759 7372686
2.502831 1.117339 1.423056 6979476
2.515077 1.140672 1.459266 7831431
2.515835 1.221391 0.822214 3440586
2.543329 1.245954 1.449876 7634826
2.501645 1.220931 1.489187 7896966
2.532851 1.294370 0.894211 4358076
2.547678 1.338189 0.841433 4358076
2.541734 1.380474 0.825584 3047376
2.528798 1.392617 1.481221 7831431
2.534689 1.430700 1.462300 7372686
2.525546 1.402511 1.502234 7896966
2.514786 1.496979 1.072274 4947891
2.548231 1.479854 1.315014 5996451
2.528658 1.527806 0.818693 3899331
2.540761 1.516122 0.862797 3702726
2.527943 1.506810 1.040018 5144496
2.526908 1.570568 0.827645 3440586
2.541319 1.580970 0.862831 3637191
2.500886 1.566829 1.085488 5799846
2.542905 1.559916 1.137956 5406636
2.527792 1.584400 1.153716 5668776
2.502218 1.594484 1.397814 7372686
2.549234 1.555448 1.416971 7503756
2.501925 1.620451 0.818419 3375051
2.549445 1.604236 0.874269 3833796
2.544038 1.642583 1.144534 5406636
2.522797 1.631953 1.171791 5275566
2.542169 1.602886 1.453746 8159106
2.528421 1.611597 1.507293 7503756
2.540813 1.687127 0.816942 3047376
2.502055 1.664002 0.889899 4489146
2.511934 1.650318 1.195700 5210031
2.519141 1.731559 0.799444 3702726
2.522557 1.700137 0.809689 3571656
2.506426 1.729747 1.341281 6520731
2.516709 1.721223 1.387915 7307151
2.536890 1.798997 0.861946 3899331
2.523156 1.790320 1.066440 4620216
2.511255 1.767763 1.115980 5144496
2.522493 1.797631 1.296531 6651801
2.500952 1.788130 1.305855 6520731
2.533523 1.761427 1.382759 6979476
2.525660 1.773784 1.404690 7176081
2.511926 1.802816 0.840490 2850771
2.516585 1.841243 0.854868 3637191
2.544317 1.833624 1.121742 4620216
2.537524 1.817945 1.153787 6193056
2.512354 1.810577 1.201181 6455196
2.509561 1.837197 1.278163 6520731
2.510906 1.844664 1.304987 6586266
2.544151 1.816574 1.362917 6979476
2.515797 1.879245 0.818734 4095936
2.545930 1.853640 1.127565 5799846
2.535664 1.860652 1.341747 6848406
2.528706 1.851140 1.351824 7372686
2.517744 1.928888 0.819681 2719701
2.511405 1.919560 0.860863 3702726
2.535279 1.943144 1.213222 6586266
2.533677 1.908877 1.289689 6848406
2.545544 1.999671 0.870749 4423611
2.529255 1.985987 1.326712 6455196
2.514668 2.032230 0.834203 2785236
2.523786 2.094999 0.840625 3178446
2.504599 2.083260 0.852647 4489146
2.535936 2.143821 0.821790 2719701
2.526594 2.149250 0.852317 3833796
2.502093 2.109208 1.199845 5275566
2.535525 2.176266 0.820243 3637191
2.548747 2.166256 0.857746 3964866
2.515552 2.173729 1.194564 5734311
2.548254 2.168753 1.218795 5472171
2.540398 2.217798 0.830797 2785236
2.521650 2.219925 0.872014 4489146
2.514916 2.215734 0.918094 4423611
2.521535 2.289212 0.819398 3768261
2.519545 2.262291 0.872397 4620216
2.515700 2.388249 0.819745 3637191
2.527092 2.363053 0.859118 4292541
2.514017 2.448638 0.874198 4161471
2.533919 2.424122 0.911611 4620216
2.524224 2.494373 0.825133 2588631
2.516854 2.488182 0.850107 3571656
2.526439 2.548899 0.824133 3899331
2.513197 2.527066 0.857861 3178446
2.532236 2.568605 0.829878 3702726
2.520732 2.571910 0.939250 4161471
2.521862 2.593862 0.951720 4489146
2.503782 2.602516 0.824786 3833796
2.528471 2.641746 0.865613 3309516
2.530836 2.643085 0.930259 4095936
2.521442 2.654308 0.846182 4292541
2.540277 2.650770 0.872495 3768261
2.507796 2.650268 1.053548 5275566
2.524365 2.699201 1.103333 5668776
2.521467 2.679808 1.183965 6127521
2.524464 2.748108 0.832484 3899331
2.532387 2.722368 0.850523 2785236
2.504692 2.749035 0.925843 4095936
2.541003 2.722369 1.027406 5210031
2.512349 2.723100 1.162558 5472171
2.514149 2.720386 1.227967 5865381
2.548937 2.766094 0.841984 3768261
2.500433 2.772476 0.869459 4030401
2.525652 2.761881 0.942862 4227006
2.508257 2.781231 0.973415 4751286
2.503304 2.756591 1.015751 4882356
2.508699 2.752160 1.065267 4947891
2.548798 2.844471 0.837666 4227006
2.534009 2.807270 0.854640 3637191
2.515537 2.830984 0.947684 4227006
2.511698 2.807677 0.972730 4423611
2.500341 2.825179 1.067527 4947891
2.541420 2.838995 1.117017 5734311
2.501153 2.851271 0.846111 4292541
2.531220 2.891543 0.863949 3702726
2.534607 2.880197 1.037511 5275566
2.529602 2.850565 1.199257 6258591
2.505492 2.874384 1.250515 6520731
2.523866 2.946095 0.845040 4030401
2.520970 2.936194 0.876701 4095936
2.531407 2.940957 0.977077 4751286
2.528951 2.941592 1.048269 5013426
2.532465 2.939658 1.055272 5275566
2.545709 2.984380 0.866991 4423611
2.548428 2.979035 0.924352 4816821
2.517620 2.994582 0.964161 4554681
2.516315 2.960485 1.046845 5406636
2.506543 2.997500 1.091197 5865381
2.522073 2.982607 1.145817 5537706
2.546749 2.979452 1.156745 5996451
2.529813 3.020615 0.824176 4161471
2.525221 3.003242 0.860408 4030401
2.536625 3.011732 0.934366 4423611
2.507576 3.010454 0.951142 4816821
2.510760 3.040108 1.044947 5013426
2.509861 3.001009 1.065546 5668776
2.525466 3.037005 1.101702 5406636
2.528928 3.015008 1.151424 5537706
2.506687 3.037296 1.216871 6324126
2.509509 3.020885 1.285666 6717336
2.505148 3.085878 0.820960 4292541
2.513511 3.084214 0.873144 3506121
2.511779 3.096300 0.922077 3637191
2.524073 3.076770 0.996773 4620216
2.507851 3.055602 1.041440 4947891
2.515039 3.055062 1.162726 5603241
2.534521 3.128893 0.843613 3571656
2.513890 3.122209 0.878167 4161471
2.535708 3.137590 0.923610 3375051
2.502117 3.100824 0.983367 4751286
2.548902 3.171388 0.808464 2719701
2.541336 3.164375 0.869714 4423611
2.547218 3.191115 0.930267 4292541
2.548710 3.228551 0.825923 3112911
2.517779 3.234690 0.851927 3702726
2.506363 3.220052 0.945807 5013426
2.535707 3.201197 0.950126 3899331
2.518996 3.233402 1.154401 5472171
2.512937 3.221557 1.268634 6127521
2.531069 3.289704 0.821279 3637191
2.545641 3.296324 0.856009 3571656
2.526225 3.279028 0.923512 4358076
2.529639 3.302267 0.817279 3637191
2.538213 3.341256 0.883831 4685751
2.531008 3.319054 0.944330 5013426
2.543690 3.306923 0.984101 4423611
2.539946 3.367557 0.838956 2916306
2.505992 3.356492 0.955839 5013426
2.545970 3.395647 1.199412 5734311
2.544181 3.397249 1.201172 6389661
2.511585 3.376531 1.275294 6520731
2.538190 3.434697 0.829623 4358076
2.522428 3.445556 1.180042 5668776
2.513288 3.406752 1.205031 5406636
2.543129 3.436532 1.259327 6389661
2.543849 3.471327 0.833704 2850771
2.511789 3.487251 0.869112 4095936
2.506316 3.450964 0.943602 4423611
2.512241 3.488924 0.989353 5013426
2.524995 3.491788 1.009481 4292541
2.529762 3.496278 1.127090 4882356
2.546823 3.471025 1.187851 5799846
2.547487 3.481183 1.208943 5799846
2.548885 3.491880 1.288600 6717336
2.536255 3.517350 0.856418 4358076
2.505920 3.516852 0.930714 4358076
2.538349 3.520166 0.993624 3833796
2.513082 3.518751 1.034787 4620216
2.543666 3.538957 1.143197 5668776
2.541720 3.520703 1.183494 5275566
2.507833 3.533407 1.239030 5668776
2.525618 3.536760 1.270722 6782871
2.537179 3.531709 1.310455 6848406
2.501661 3.582931 0.976583 4751286
2.536697 3.584458 1.037539 5144496
2.546080 3.573717 1.198453 5930916
2.530611 3.596639 1.241861 6193056
2.542096 3.595315 1.250713 6586266
2.528585 3.568476 1.311532 6389661
2.508681 3.595539 1.403618 7241616
2.528937 3.645095 1.177401 5865381
2.549065 3.610911 1.249022 5996451
2.546810 3.606281 1.252681 7503756
2.517995 3.633663 1.331674 6782871
2.528873 3.631362 1.350578 6651801
2.528473 3.655931 0.839896 3571656
2.514256 3.663267 1.027733 5078961
2.525894 3.664254 1.084750 5406636
2.505469 3.676670 1.160639 6061986
2.532074 3.688951 1.215135 6061986
2.525814 3.687571 1.284491 6455196
2.505042 3.651463 1.317783 6127521
2.501188 3.689688 1.373471 6979476
2.504684 3.738233 0.821191 2981841
2.536148 3.734636 1.087374 5668776
2.507981 3.720693 1.176021 6193056
2.549587 3.740639 1.238863 6324126
2.520071 3.747023 1.250323 5799846
2.529903 3.709514 1.325549 6717336
2.504974 3.706427 1.369138 6979476
2.527838 3.766711 1.218416 6193056
2.509781 3.782274 1.276260 6520731
2.537656 3.753578 1.316365 6651801
2.508931 3.784811 1.384885 6913941
2.517435 3.774631 1.417684 7765896
2.502384 3.816813 1.275389 6389661
2.533404 3.829493 1.303051 6455196
2.539052 3.820413 1.389659 7307151
2.545056 3.884380 0.984913 4423611
2.508446 3.851844 1.289399 6979476
2.525386 3.853985 1.312794 6717336
2.544536 3.882799 1.356168 7045011
2.539452 3.851578 1.407477 7634826
2.527939 3.924861 0.988808 3899331
2.524636 3.984706 1.239441 6324126
2.547138 3.950447 1.265929 6061986
2.533336 3.968851 1.348258 7110546
2.546888 3.983009 1.363238 6848406
2.548100 3.957565 1.407030 7045011
2.516380 4.000812 1.381956 6979476
2.543405 4.106265 1.309612 6389661
2.506788 4.145749 1.399067 7241616
2.511399 4.205931 1.368361 7045011
2.547742 4.571395 1.440338 7896966
2.545853 4.564250 1.483690 8093571
2.542522 4.610616 0.847973 4358076
2.537204 4.605842 1.187883 5603241
2.549041 4.744740 1.346508 6324126
2.542610 4.745606 1.420125 7176081
2.509991 4.763883 0.865803 4358076
2.503252 4.751213 0.900724 4751286
2.530201 4.758503 1.237883 6782871
2.546256 4.754168 1.326242 6258591
2.536550 4.772993 1.367489 7372686
2.513552 4.755809 1.449362 7241616
2.549578 4.780532 1.454722 7241616
2.529287 4.809637 1.094274 4554681
2.544499 4.845141 1.143479 4751286
2.536957 4.815585 1.318140 6193056
2.535670 4.808653 1.439076 7176081
2.529847 4.883111 1.105140 4882356
2.537008 4.853960 1.221488 5210031
2.544607 4.871127 1.278718 6520731
2.518099 4.863656 1.384246 6258591
2.508328 4.861734 1.441428 7176081
2.520277 4.931083 0.928012 4554681
2.531668 4.927194 1.223306 6324126
2.500365 4.906627 1.389800 7241616
2.508652 4.900354 1.421571 7569291
2.518304 4.951919 0.818761 4161471
2.543555 5.014079 1.131634 5603241
2.508632 5.022439 1.429748 7831431
2.548784 5.093649 0.876366 4620216
2.518893 5.078041 1.437828 7634826
2.503592 5.147008 0.849653 4095936
2.536228 5.122821 0.875941 4554681
2.509753 5.140324 0.936667 4554681
2.522586 5.119298 1.016055 4816821
2.524070 5.133359 1.062542 4816821
2.532063 5.136522 1.248942 6061986
2.524626 5.125782 1.304557 6586266
2.525775 5.125484 1.445659 7896966
2.539812 5.184671 0.941103 4816821
2.547716 5.161884 0.990438 4751286
2.521654 5.160279 1.044543 5603241
2.503445 5.155137 1.069200 5734311
2.519325 5.192741 1.368562 7176081
2.533550 5.154370 1.406420 7372686
2.537585 5.219429 0.901771 4095936
2.528819 5.229915 1.399834 7372686
2.549047 5.216191 1.437504 7241616
2.543373 5.212111 1.466573 8028036
2.539941 5.266117 1.072378 4554681
2.519294 5.287059 1.226339 5537706
2.541640 5.265424 1.366605 6127521
2.514000 5.365596 1.012234 4620216
2.516998 5.417462 0.991506 4489146
2.590900 0.657499 1.270228 6782871
2.583180 0.664093 1.484542 7831431
2.579407 0.677975 1.510639 7962501
2.598376 0.742353 1.541405 8028036
2.586636 0.787916 1.444021 8945526
2.572910 0.895952 1.396071 6848406
2.579697 0.938789 1.398499 7241616
2.583309 0.918889 1.407314 7110546
2.556395 0.931770 1.457670 7438221
2.577194 0.973386 1.369909 6193056
2.587399 0.985157 1.430967 7569291
2.570986 0.979667 1.452351 7372686
2.596283 0.990808 1.521274 7896966
2.592674 0.993861 1.557703 8224641
2.559809 1.006450 1.326170 6717336
2.566705 1.012652 1.387647 7569291
2.592618 1.036180 1.448472 7700361
2.581839 1.017830 1.481676 7569291
2.598660 1.003687 1.555600 7896966
2.573574 1.057968 1.305617 6913941
2.571039 1.088592 1.401846 7110546
2.584683 1.051197 1.474270 7831431
2.557101 1.111643 1.424660 7110546
2.554995 1.160164 1.423425 6258591
2.558400 1.165398 1.512023 7896966
2.582324 1.182950 1.556870 7765896
2.585486 1.349970 0.844549 3571656
2.599652 1.325153 1.404236 7307151
2.598241 1.356812 0.859329 4423611
2.557381 1.443941 0.828270 3899331
2.560509 1.425154 1.342471 6324126
2.598882 1.419992 1.542523 7700361
2.586859 1.490483 0.861280 2981841
2.555223 1.465846 1.338998 7765896
2.550837 1.498886 1.355746 6717336
2.558197 1.496544 1.403519 7372686
2.554646 1.543567 0.838765 3637191
2.558460 1.547073 0.866009 4292541
2.583979 1.515643 1.257712 6717336
2.568571 1.520686 1.317459 5865381
2.557377 1.502183 1.361304 6717336
2.597796 1.542707 1.406102 7241616
2.555938 1.596816 0.832168 3309516
2.568011 1.554012 0.864758 4358076
2.567619 1.579397 1.133169 5144496
2.565132 1.595344 1.171615 5603241
2.599887 1.566772 1.347500 6848406
2.552754 1.582062 1.365665 6717336
2.587979 1.575524 1.406963 6782871
2.557472 1.612517 0.827495 3571656
2.568956 1.633835 0.881045 4161471
2.574533 1.642283 1.034105 5275566
2.577661 1.628442 1.128910 5406636
2.552979 1.607697 1.173989 5275566
2.579037 1.623505 1.333860 6913941
2.585998 1.652291 0.833813 3768261
2.553490 1.664031 0.861349 4489146
2.579291 1.670025 1.073395 5537706
2.598153 1.654083 1.129449 5275566
2.575699 1.681333 1.178918 5668776
2.565780 1.662801 1.210047 5472171
2.593797 1.656232 1.385916 8486781
2.595473 1.703199 1.254103 6193056
2.579817 1.733269 1.306992 6651801
2.589595 1.783678 0.831683 3702726
2.588098 1.798839 0.872151 4030401
2.575633 1.791865 0.910865 4423611
2.577572 1.755802 1.133257 5603241
2.582536 1.764019 1.346654 6848406
2.563363 1.770528 1.351706 6782871
2.554513 1.819723 0.847432 3506121
2.558726 1.808411 1.216460 5799846
2.578823 1.803453 1.340802 7045011
2.584659 1.843491 1.373008 7241616
2.561593 1.845145 1.411760 7176081
2.582579 1.822197 1.493283 8159106
2.581679 1.881794 0.877120 4620216
2.565782 1.875547 1.179242 6324126
2.574718 1.863545 1.202167 6061986
2.580224 1.871348 1.262800 6258591
2.555711 1.877053 1.398954 7438221
2.599538 1.923238 0.850873 2457561
2.597760 1.941074 0.900146 4751286
2.563589 1.905141 1.072241 5275566
2.589874 1.914504 1.166172 5734311
2.581337 1.907398 1.269330 6324126
2.597472 1.909117 1.388715 7372686
2.576457 1.955288 0.830364 3702726
2.598168 1.974208 0.872277 4292541
2.588301 2.004647 0.842819 2850771
2.557958 2.028756 0.856286 4095936
2.573348 2.028306 0.934519 4554681
2.556546 2.032123 1.419667 6782871
2.590930 2.084777 0.841394 3899331
2.571270 2.074244 0.857227 3899331
2.551046 2.080424 1.410366 7307151
2.553704 2.104065 0.838707 3047376
2.584144 2.136141 0.876709 4423611
2.552281 2.139535 1.217428 5865381
2.576487 2.154849 0.840693 3964866
2.592093 2.189788 0.851492 3833796
2.554936 2.200143 0.841005 4030401
2.592121 2.221768 0.850343 4030401
2.598128 2.296301 0.852984 2785236
2.594983 2.348914 0.844517 3112911
2.575294 2.314824 0.871217 3702726
2.561595 2.389008 0.843048 3768261
2.580486 2.373765 0.858775 4095936
2.586125 2.403269 0.848801 3833796
2.579754 2.431948 0.881256 4423611
2.571582 2.440166 0.907903 4816821
2.584975 2.461287 0.846175 4292541
2.575048 2.462429 0.863776 4423611
2.584860 2.497542 0.911460 4685751
2.576698 2.504376 0.833259 3178446
2.579538 2.543425 0.873514 3768261
2.552938 2.578312 0.822044 2785236
2.594856 2.570049 0.868598 4161471
2.596769 2.564900 0.901232 4292541
2.570106 2.632928 0.849920 3375051
2.580301 2.632030 0.877476 4095936
2.554371 2.649865 0.970192 4292541
2.550493 2.687527 0.826707 3112911
2.586436 2.655106 0.883612 3833796
2.556855 2.694532 0.908429 4161471
2.566105 2.707045 0.838640 3047376
2.568445 2.723390 0.880675 3768261
2.578035 2.733562 0.929216 4554681
2.560086 2.755027 0.893543 4227006
2.556748 2.761492 0.974927 4947891
2.566178 2.760548 1.005787 4554681
2.561305 2.805699 0.833602 3047376
2.575681 2.805446 0.876291 4489146
2.598856 2.885483 0.824493 4030401
2.551877 2.898749 0.860992 4489146
2.555887 2.868256 1.060906 5472171
2.569389 2.930488 0.841183 2392026
2.565030 2.939429 0.865904 3309516
2.597175 2.939542 0.904771 4358076
2.596652 2.907593 0.994582 4685751
2.551972 2.941341 1.058274 5144496
2.558632 2.996332 0.811085 2719701
2.565472 2.950762 0.852802 3637191
2.555415 2.977093 0.914441 4358076
2.579759 2.986614 0.964345 4620216
2.565792 2.987736 1.065545 5013426
2.560861 3.010099 0.830316 3899331
2.596624 3.036462 0.857451 4358076
2.595410 3.047018 0.928798 3964866
2.587962 3.038738 0.954332 5275566
2.563020 3.021319 1.023187 4947891
2.555462 3.027079 1.073717 5603241
2.599546 3.093783 0.865236 3964866
2.553408 3.060745 0.938391 4489146
2.590332 3.061868 0.986279 5341101
2.567729 3.123198 0.838219 2916306
2.583786 3.111575 0.866051 3047376
2.580251 3.126232 0.925928 3440586
2.551528 3.120709 0.962255 4358076
2.590575 3.188999 0.847370 3243981
2.586835 3.197165 0.908842 4816821
2.580788 3.163440 0.972438 3964866
2.557189 3.224578 0.897203 3833796
2.583517 3.200572 0.920347 4292541
2.573782 3.232052 0.971981 5275566
2.560506 3.220927 1.060389 4882356
2.559052 3.268926 0.825420 3899331
2.584067 3.275586 0.863545 2981841
2.573891 3.268927 0.923279 3964866
2.593192 3.287882 0.984720 5341101
2.561389 3.300206 0.845015 2916306
2.584755 3.307624 0.876444 3768261
2.580462 3.344175 0.906314 4816821
2.577093 3.301474 0.979650 5013426
2.586430 3.321097 1.048465 4816821
2.592592 3.343157 1.067126 5603241
2.578913 3.372084 0.840387 3964866
2.589829 3.371940 0.954657 4489146
2.586350 3.383230 1.003412 4161471
2.591620 3.391990 1.080725 4685751
2.586253 3.389075 1.116586 5275566
2.564990 3.399060 1.188762 5537706
2.595652 3.372228 1.232167 6389661
2.591923 3.436867 0.862105 3964866
2.594862 3.408439 0.949303 4685751
2.587500 3.444482 0.998894 5078961
2.571556 3.415046 1.038808 5144496
2.572250 3.434167 1.056027 4554681
2.554144 3.449803 1.145261 5603241
2.583938 3.443668 1.150113 5996451
2.550949 3.407083 1.225331 5930916
2.569242 3.403246 1.270632 6651801
2.557707 3.497790 0.830085 4030401
2.564174 3.463722 0.867285 3768261
2.558872 3.486154 0.987143 3768261
2.569381 3.495356 1.026378 4292541
2.551346 3.453233 1.075422 4947891
2.586621 3.473687 1.129942 5275566
2.561452 3.481426 1.164838 6586266
2.588084 3.465836 1.228320 6324126
2.595055 3.479176 1.269458 6651801
2.580935 3.536373 0.836856 4227006
2.577554 3.542999 0.890679 4227006
2.579809 3.538893 0.911875 3375051
2.586777 3.506838 0.985681 4095936
2.576882 3.542663 1.046108 5537706
2.580653 3.520777 1.184909 5799846
2.566608 3.523734 1.225584 5734311
2.574708 3.526826 1.258457 6127521
2.576941 3.524046 1.303947 6651801
2.584237 3.583319 0.965987 4358076
2.594293 3.583392 1.046721 5078961
2.597519 3.598229 1.193158 5996451
2.566755 3.579365 1.232537 5930916
2.590815 3.556505 1.282461 6193056
2.576022 3.596850 1.346734 7045011
2.571100 3.595768 1.366140 7176081
2.571475 3.619670 0.876228 3768261
2.562461 3.619613 1.029622 5341101
2.598228 3.648720 1.077725 5537706
2.555934 3.614928 1.138964 5668776
2.575578 3.625779 1.199266 5865381
2.598003 3.645639 1.236163 6193056
2.552323 3.603178 1.259679 6061986
2.559027 3.643103 1.316702 6455196
2.595874 3.662105 0.831286 2850771
2.577240 3.681858 1.060903 5275566
2.558489 3.697176 1.133308 5603241
2.563917 3.696714 1.162957 6061986
2.583740 3.673088 1.231075 6127521
2.599733 3.675267 1.259821 6193056
2.586909 3.677735 1.338376 7045011
2.571500 3.737365 1.071497 5210031
2.598464 3.707334 1.116974 4489146
2.569529 3.717372 1.184464 4947891
2.567505 3.701377 1.204763 5078961
2.563352 3.723902 1.297243 5734311
2.553999 3.727363 1.328793 6520731
2.552696 3.771595 1.029666 5341101
2.592405 3.798232 1.187822 6389661
2.558093 3.754137 1.227872 6389661
2.597730 3.780903 1.285701 6979476
2.554451 3.771499 1.371086 6848406
2.567288 3.813210 0.838506 2916306
2.568278 3.832277 0.888731 3440586
2.577405 3.829118 0.987009 4882356
2.573625 3.800294 1.007332 4554681
2.559764 3.828098 1.238110 6717336
2.577543 3.824957 1.297453 6848406
2.572244 3.814185 1.330343 7241616
2.577987 3.809280 1.378654 7241616
2.571341 3.866691 1.245942 6717336
2.574014 3.877378 1.266263 5472171
2.553898 3.852525 1.315454 6848406
2.555877 3.885756 1.353402 7045011
2.560675 3.947491 0.997012 4095936
2.550548 3.922234 1.038756 4358076
2.588351 3.925409 1.089249 5472171
2.571482 3.945537 1.353793 6913941
2.573315 3.949568 1.423395 7307151
2.585948 3.973853 1.185252 5275566
2.589901 3.982368 1.313926 5799846
2.562181 3.950419 1.366799 6913941
2.571322 3.953881 1.406200 7045011
2.577785 4.039368 1.388985 6782871
2.554746 4.102344 1.276476 6193056
2.595390 4.160188 1.402500 6913941
2.591165 4.241226 1.488247 8159106
2.591630 4.333685 1.351586 7372686
2.585185 4.545353 1.425031 6586266
2.584302 4.553232 1.443438 7176081
2.567005 4.567164 1.462218 7307151
2.596451 4.611811 1.392101 7438221
2.563807 4.650314 0.865593 3768261
2.565463 4.689221 1.206362 6193056
2.594814 4.684516 1.302032 6455196
2.592445 4.659955 1.356224 6717336
2.589946 4.688194 1.411019 7241616
2.577109 4.741212 0.835942 4161471
2.582659 4.747326 1.086501 5603241
2.564248 4.724669 1.256958 7176081
2.571756 4.713951 1.347743 6389661
2.593327 4.743065 1.370673 6782871
2.578165 4.734663 1.402961 7372686
2.585427 4.742918 1.452197 7962501
2.568318 4.760437 0.875865 4489146
2.578003 4.763648 1.111867 4882356
2.597506 4.784994 1.191639 5210031
2.599102 4.760378 1.234904 5668776
2.584331 4.765180 1.289336 6586266
2.564736 4.793235 1.334603 6651801
2.597654 4.798098 1.365168 7241616
2.558155 4.755277 1.428823 6324126
2.599041 4.760379 1.483606 7438221
2.562695 4.833878 1.142495 5341101
2.577119 4.819756 1.191149 5275566
2.562106 4.834306 1.202140 5799846
2.588871 4.829595 1.309060 6586266
2.587116 4.809524 1.355569 6848406
2.560289 4.816256 1.440311 7634826
2.552698 4.833822 1.462689 7307151
2.598760 4.892550 1.006884 4554681
2.597308 4.863971 1.104447 5078961
2.576068 4.872814 1.153477 5668776
2.596383 4.919646 0.891645 4292541
2.568898 4.940819 1.191807 5668776
2.586722 4.938188 1.207801 4816821
2.574857 4.924842 1.306495 7110546
2.594490 4.909585 1.462602 7372686
2.570512 4.961052 0.904980 3899331
2.576875 4.984456 1.391739 7241616
2.594122 5.033793 0.940294 3571656
2.592286 5.016660 0.977884 4095936
2.578256 5.019000 1.025092 4423611
2.555665 5.002307 1.431114 7503756
2.557335 5.041949 1.477970 7569291
2.567997 5.009489 1.504002 7765896
2.565547 5.072271 0.893455 4489146
2.597442 5.059263 0.914239 3375051
2.572630 5.087985 1.045539 5078961
2.566028 5.074158 1.461313 7765896
2.570927 5.134043 0.883520 4227006
2.589424 5.112595 0.989494 4751286
2.561739 5.146096 1.185622 6193056
2.567540 5.120027 1.382602 7241616
2.595288 5.133498 1.406764 7241616
2.589008 5.152632 0.985659 4882356
2.591588 5.169288 1.177663 6127521
2.563147 5.199431 1.267828 5799846
2.550616 5.189845 1.447854 7307151
2.583679 5.165147 1.456717 7372686
2.553154 5.238175 1.158397 5013426
2.553983 5.217457 1.365111 6782871
2.554406 5.209191 1.421723 7241616
2.581948 5.215604 1.465682 7438221
2.576361 5.257791 1.210473 5472171
2.550532 5.404730 0.883564 3833796
2.576456 5.467005 0.892977 3243981
2.583914 5.497977 0.925037 3637191
2.573720 5.515867 0.948146 3768261
2.577885 5.513682 0.968292 3899331
2.646412 0.691995 1.466427 7765896
2.643687 0.719194 1.428038 7503756
2.605910 0.745922 1.451924 7831431
2.617830 0.740697 1.544229 8224641
2.620152 0.730388 1.604710 8355711
2.606345 0.759177 1.380137 7241616
2.636330 0.796429 1.475915 7831431
2.628755 0.752259 1.549338 7831431
2.648941 0.781661 1.569883 7962501
2.620498 0.813267 1.363226 7569291
2.621449 0.821114 1.545222 8028036
2.631828 0.837647 1.559118 7896966
2.628289 0.861181 1.504912 7962501
2.644859 0.860621 1.561216 7896966
2.617437 0.913463 1.332511 6651801
2.602251 0.938616 1.373086 7241616
2.649248 0.938912 1.526641 8093571
2.645313 0.987384 1.348372 7110546
2.603397 0.973279 1.406357 7045011
2.618503 0.974988 1.475711 7634826
2.629181 0.992186 1.541721 8159106
2.624068 1.016934 1.362116 6848406
2.622826 1.040967 1.413825 7176081
2.639634 1.013032 1.452045 7438221
2.617037 1.016848 1.540180 8159106
2.622266 1.069170 1.395826 7438221
2.611868 1.163553 1.545465 7896966
2.626035 1.209204 1.497270 7438221
2.640464 1.324679 0.860334 3637191
2.642528 1.300615 1.471148 7634826
2.648451 1.427460 0.847647 4292541
2.631660 1.439031 0.866332 3768261
2.627727 1.487812 0.846374 3964866
2.606189 1.500396 1.335292 6848406
2.607198 1.574513 0.865028 2981841
2.606903 1.551599 1.406131 7176081
2.612526 1.635833 0.848081 4030401
2.603529 1.624318 0.895677 3506121
2.605187 1.646959 1.126038 5472171
2.641475 1.642885 1.180908 5734311
2.618208 1.608743 1.401927 6651801
2.611553 1.699237 0.893621 3899331
2.623174 1.696865 1.144588 5603241
2.615335 1.697312 1.166205 5603241
2.622745 1.697163 1.207181 5472171
2.612336 1.658600 1.321873 7307151
2.645623 1.653935 1.373233 7110546
2.629541 1.678077 1.412796 7176081
2.639085 1.725319 0.848195 3833796
2.620832 1.718534 0.852980 2916306
2.604624 1.746223 1.248804 6324126
2.616685 1.740073 1.492010 7700361
2.624977 1.789691 1.088569 5668776
2.624307 1.783634 1.124702 5603241
2.615620 1.766914 1.287633 6389661
2.627952 1.792614 1.308837 6651801
2.600243 1.756939 1.368749 7176081
2.639016 1.771278 1.462506 6782871
2.634835 1.828704 0.877970 4227006
2.641594 1.832818 0.952865 4620216
2.620379 1.818169 1.193513 6389661
2.621723 1.842908 1.240296 6324126
2.605052 1.823648 1.256021 6389661
2.601685 1.824866 1.351652 6979476
2.639263 1.824419 1.427058 7503756
2.637554 1.866286 0.869945 3964866
2.641201 1.853874 0.907210 3899331
2.646282 1.862377 1.245931 6258591
2.604077 1.868339 1.388516 7372686
2.615543 1.887043 1.400317 7110546
2.609135 1.937525 0.839442 2850771
2.605906 1.930498 0.883770 3702726
2.605737 1.930618 1.249543 6324126
2.629137 1.948888 1.267864 6651801
2.623012 1.906963 1.380735 7503756
2.622082 1.970088 0.856614 4358076
2.606963 1.990438 0.913702 4292541
2.649469 1.975917 1.211137 6520731
2.607754 2.035627 0.859266 3637191
2.603962 2.072186 0.899942 4751286
2.649865 2.084550 1.311202 6389661
2.642054 2.062967 1.364832 6389661
2.613586 2.082559 1.443728 7241616
2.639459 2.139434 0.894090 3833796
2.630913 2.122419 0.908723 4685751
2.600916 2.169113 0.874669 3768261
2.616550 2.242269 0.832869 4292541
2.644692 2.231923 0.865993 3964866
2.646524 2.273590 0.887887 4554681
2.620076 2.271226 0.907093 4161471
2.608832 2.308740 0.832747 3899331
2.632975 2.329006 0.857674 3309516
2.646647 2.302563 0.909118 4292541
2.634788 2.368197 0.848255 2981841
2.637482 2.378200 0.897732 3899331
2.624622 2.440875 0.887528 4161471
2.607822 2.440742 0.900066 4423611
2.617386 2.461438 0.898114 3899331
2.611720 2.544315 0.841013 2916306
2.646188 2.514041 0.877507 4030401
2.629528 2.578296 0.865625 3964866
2.638704 2.599009 0.939953 4554681
2.619105 2.626993 0.828907 2850771
2.622277 2.626552 0.892775 4554681
2.625063 2.694529 0.869528 4423611
2.607216 2.717308 0.844752 2981841
2.603977 2.746123 0.869642 3309516
2.610089 2.733010 0.905070 4751286
2.609788 2.771575 0.866147 3702726
2.640659 2.765000 0.940991 4554681
2.612064 2.841879 0.865487 3964866
2.600283 2.881367 0.839311 2916306
2.605248 2.868482 0.861250 4358076
2.616038 2.865911 0.906212 4554681
2.618558 2.924600 0.873574 4030401
2.625154 2.933685 0.934144 4751286
2.638505 2.997400 0.891353 3899331
2.626923 2.993690 0.936720 4161471
2.622771 2.961800 0.972267 5078961
2.635970 2.979320 1.013231 5144496
2.631507 3.027956 0.872212 3440586
2.644870 3.040421 0.900545 3440586
2.645748 3.043428 0.972136 4292541
2.629997 3.093617 0.836685 3833796
2.624081 3.065199 0.869679 4227006
2.602101 3.050148 0.913072 4882356
2.631253 3.063854 0.951592 4227006
2.632665 3.120390 0.873832 3178446
2.619480 3.138984 0.930908 4095936
2.636396 3.138113 0.978107 4030401
2.630417 3.133806 1.001524 5275566
2.603659 3.151548 0.880892 3833796
2.620792 3.193693 0.942875 4489146
2.622693 3.182886 0.973720 4358076
2.602058 3.200474 0.859005 4358076
2.624354 3.222886 0.948399 4227006
